# .PCD v0.7 - Point Cloud Data file format
VERSION 0.7
FIELDS x y z
SIZE 4 4 4
TYPE F F F
COUNT 1 1 1
WIDTH 1620
HEIGHT 1
VIEWPOINT 0 0 0 1 0 0 0
POINTS 1620
DATA ascii
16.83 3.1500001 -0.16387233
16.83 3.2400002 0.016514849
16.83 3.3300002 -0.057667159
16.83 3.4200001 -0.021857275
16.83 3.5100002 0.059446178
16.83 3.6000001 0.10097008
16.83 3.6900001 0.01881502
16.83 3.7800002 0.073966138
16.83 3.8700001 0.034274306
16.83 3.96 -0.12565196
16.83 4.0500002 0.12726261
16.83 4.1400003 -0.13677832
16.83 4.23 -0.16775608
16.83 4.3200002 0.0060263309
16.83 4.4100003 0.078532174
16.83 4.5 0.066361777
16.83 4.5900002 0.099882722
16.83 4.6800003 -0.0019815098
16.83 4.77 0.076776095
16.83 4.8600001 0.082021028
16.83 4.9500003 0.016253509
16.83 5.04 -0.03022505
16.83 5.1300001 0.0050091706
16.83 5.2200003 0.077859998
16.83 5.3100004 0.063227519
16.83 5.4000001 -0.14996418
16.83 5.4900002 0.05513908
16.83 5.5800004 0.021569559
16.83 5.6700001 0.010402141
16.83 5.7600002 -0.0550262
16.83 5.8500004 0.019770455
16.83 5.9400001 -0.024236167
16.92 0 -0.055131614
16.92 0.090000004 -0.058014244
16.92 0.18000001 -0.040465936
16.92 0.27000001 -0.12967816
16.92 0.36000001 -0.092252664
16.92 0.45000002 -0.13715182
16.92 0.54000002 -0.17456599
16.92 0.63 -0.051579073
16.92 0.72000003 -0.068300709
16.92 0.81000006 -0.019060485
16.92 0.90000004 -0.10392544
16.92 0.99000001 -0.04419053
16.92 1.08 -0.11779691
16.92 1.1700001 0.099322289
16.92 1.26 0.18411194
16.92 1.35 0.10119657
16.92 1.4400001 0.18783489
16.92 1.5300001 -0.034405857
16.92 1.6200001 0.020332474
16.92 1.71 -0.018649025
16.92 1.8000001 0.013439166
16.92 1.8900001 -0.066344753
16.92 1.98 -0.12235367
16.92 2.0700002 0.19429915
16.92 2.1600001 -0.058942251
16.92 2.25 -0.036246415
16.92 2.3400002 -0.055332746
16.92 2.4300001 0.1298978
16.92 2.52 -0.14846092
16.92 2.6100001 0.072605297
16.92 2.7 -0.25722092
16.92 2.7900002 0.0061849304
16.92 2.8800001 -0.14698222
16.92 2.97 0.031870712
16.92 3.0600002 0.17035264
16.92 3.1500001 0.098280445
16.92 3.2400002 0.05269327
16.92 3.3300002 -0.059496742
16.92 3.4200001 -0.093000971
16.92 3.5100002 0.0032371983
16.92 3.6000001 0.0011243296
16.92 3.6900001 0.1234742
16.92 3.7800002 -0.14539932
16.92 3.8700001 -0.27728987
16.92 3.96 0.19227074
16.92 4.0500002 -0.098457694
16.92 4.1400003 0.0060253516
16.92 4.23 0.083739571
16.92 4.3200002 -0.19886357
16.92 4.4100003 -0.068620622
16.92 4.5 -0.19823003
16.92 4.5900002 -0.088852584
16.92 4.6800003 -0.22514418
16.92 4.77 0.013143037
16.92 4.8600001 -0.040195573
16.92 4.9500003 -0.026734751
16.92 5.04 0.064104795
16.92 5.1300001 0.048717063
16.92 5.2200003 0.11358673
16.92 5.3100004 0.041547932
16.92 5.4000001 0.062899604
16.92 5.4900002 0.12084898
16.92 5.5800004 0.099723987
16.92 5.6700001 0.13364305
16.92 5.7600002 -0.064556807
16.92 5.8500004 -0.037609562
16.92 5.9400001 -0.064913772
17.01 0 0.033352934
17.01 0.090000004 -0.055388212
17.01 0.18000001 -0.035072263
17.01 0.27000001 0.042074166
17.01 0.36000001 0.017548164
17.01 0.45000002 -0.0092223305
17.01 0.54000002 0.075082488
17.01 0.63 -0.061896358
17.01 0.72000003 0.16371143
17.01 0.81000006 0.047868885
17.01 0.90000004 0.0025464515
17.01 0.99000001 0.14596224
17.01 1.08 -0.19864908
17.01 1.1700001 -0.020084387
17.01 1.26 0.0052016433
17.01 1.35 0.027580136
17.01 1.4400001 0.078113005
17.01 1.5300001 -0.074853025
17.01 1.6200001 0.046026446
17.01 1.71 0.075498477
17.01 1.8000001 0.098829992
17.01 1.8900001 0.18635671
17.01 1.98 -0.061882529
17.01 2.0700002 0.071860321
17.01 2.1600001 -0.095537476
17.01 2.25 -0.11667795
17.01 2.3400002 0.10627586
17.01 2.4300001 0.01098683
17.01 2.52 0.029320555
17.01 2.6100001 -0.1196122
17.01 2.7 -0.026380178
17.01 2.7900002 -0.06568554
17.01 2.8800001 -0.15415159
17.01 2.97 0.033315636
17.01 3.0600002 0.11630048
17.01 3.1500001 0.043625988
17.01 3.2400002 0.04331388
17.01 3.3300002 -0.093292333
17.01 3.4200001 -0.12926106
17.01 3.5100002 0.021066377
17.01 3.6000001 -0.0070643178
17.01 3.6900001 -0.077799961
17.01 3.7800002 0.027006501
17.01 3.8700001 -0.00018030262
17.01 3.96 0.017888099
17.01 4.0500002 0.024490274
17.01 4.1400003 -0.14506809
17.01 4.23 -0.11530984
17.01 4.3200002 0.0034478575
17.01 4.4100003 0.035134841
17.01 4.5 0.05827992
17.01 4.5900002 -0.045685142
17.01 4.6800003 0.20194845
17.01 4.77 -0.059798837
17.01 4.8600001 0.13303921
17.01 4.9500003 0.037932124
17.01 5.04 0.050950423
17.01 5.1300001 -0.075090945
17.01 5.2200003 -0.16204962
17.01 5.3100004 -0.09229105
17.01 5.4000001 -0.094838195
17.01 5.4900002 -0.14085233
17.01 5.5800004 -0.079965413
17.01 5.6700001 0.13880008
17.01 5.7600002 -0.10923833
17.01 5.8500004 -0.028354291
17.01 5.9400001 0.048694696
17.1 0 -0.25879186
17.1 0.090000004 0.14035498
17.1 0.18000001 -0.085036352
17.1 0.27000001 -0.0091988957
17.1 0.36000001 0.25963578
17.1 0.45000002 -0.058151398
17.1 0.54000002 -0.092650294
17.1 0.63 0.11149725
17.1 0.72000003 -0.19817708
17.1 0.81000006 -0.038664419
17.1 0.90000004 0.10799293
17.1 0.99000001 -0.085212559
17.1 1.08 6.9720416e-05
17.1 1.1700001 -0.095161013
17.1 1.26 0.04082635
17.1 1.35 -0.08742509
17.1 1.4400001 0.02362938
17.1 1.5300001 0.013226191
17.1 1.6200001 -0.13897341
17.1 1.71 -0.088362284
17.1 1.8000001 -0.10518327
17.1 1.8900001 -0.17073102
17.1 1.98 0.14317399
17.1 2.0700002 0.13588989
17.1 2.1600001 -0.054292951
17.1 2.25 -0.085048556
17.1 2.3400002 -0.037687454
17.1 2.4300001 0.061158646
17.1 2.52 0.085594743
17.1 2.6100001 0.21741684
17.1 2.7 -0.1301242
17.1 2.7900002 -0.09660773
17.1 2.8800001 -0.13621092
17.1 2.97 -0.012704899
17.1 3.0600002 0.048687376
17.1 3.1500001 -0.061686955
17.1 3.2400002 -0.11931425
17.1 3.3300002 0.062817447
17.1 3.4200001 -0.028660737
17.1 3.5100002 -0.038023751
17.1 3.6000001 0.059631083
17.1 3.6900001 0.0027377449
17.1 3.7800002 -0.038172495
17.1 3.8700001 0.14302966
17.1 3.96 0.045800269
17.1 4.0500002 0.063621394
17.1 4.1400003 -0.0092732813
17.1 4.23 -0.02862124
17.1 4.3200002 0.012763103
17.1 4.4100003 -0.063502103
17.1 4.5 0.13966389
17.1 4.5900002 0.11275294
17.1 4.6800003 -0.044759676
17.1 4.77 0.12208141
17.1 4.8600001 -0.0012242324
17.1 4.9500003 -0.033172194
17.1 5.04 0.20679638
17.1 5.1300001 -0.15214069
17.1 5.2200003 -0.11820928
17.1 5.3100004 -0.022295944
17.1 5.4000001 -0.17492184
17.1 5.4900002 0.067346364
17.1 5.5800004 -0.12671538
17.1 5.6700001 -0.14378303
17.1 5.7600002 -0.061129723
17.1 5.8500004 -0.027384458
17.1 5.9400001 0.061541401
17.190001 0 0.07047677
17.190001 0.090000004 -0.10418882
17.190001 0.18000001 0.093154751
17.190001 0.27000001 0.020175708
17.190001 0.36000001 -0.020093169
17.190001 0.45000002 0.034297701
17.190001 0.54000002 0.25898349
17.190001 0.63 -0.17032163
17.190001 0.72000003 0.21552038
17.190001 0.81000006 -0.073536292
17.190001 0.90000004 0.021744754
17.190001 0.99000001 0.17241444
17.190001 1.08 -0.084059805
17.190001 1.1700001 -0.038573589
17.190001 1.26 0.042389542
17.190001 1.35 0.10716564
17.190001 1.4400001 0.07763803
17.190001 1.5300001 0.13532084
17.190001 1.6200001 -0.091030903
17.190001 1.71 -0.02531579
17.190001 1.8000001 -0.1597867
17.190001 1.8900001 0.11270123
17.190001 1.98 0.015230979
17.190001 2.0700002 0.10862389
17.190001 2.1600001 -0.016476013
17.190001 2.25 0.072054878
17.190001 2.3400002 -0.023011269
17.190001 2.4300001 -0.11329757
17.190001 2.52 0.041742403
17.190001 2.6100001 0.051993228
17.190001 2.7 0.044252373
17.190001 2.7900002 -0.027928583
17.190001 2.8800001 -0.0042810757
17.190001 2.97 0.054237969
17.190001 3.0600002 -0.040825773
17.190001 3.1500001 -0.090728201
17.190001 3.2400002 0.073751666
17.190001 3.3300002 0.11617154
17.190001 3.4200001 0.08033447
17.190001 3.5100002 -0.060582489
17.190001 3.6000001 -0.094851509
17.190001 3.6900001 -0.19570826
17.190001 3.7800002 0.0020599507
17.190001 3.8700001 0.23117179
17.190001 3.96 0.080723032
17.190001 4.0500002 -0.040469054
17.190001 4.1400003 0.11990698
17.190001 4.23 -0.11945109
17.190001 4.3200002 -0.072528981
17.190001 4.4100003 0.062979475
17.190001 4.5 0.21041697
17.190001 4.5900002 -0.15231769
17.190001 4.6800003 -0.042309362
17.190001 4.77 -0.074944824
17.190001 4.8600001 0.16034399
17.190001 4.9500003 0.062170889
17.190001 5.04 -0.086417899
17.190001 5.1300001 -0.01112311
17.190001 5.2200003 -0.1115754
17.190001 5.3100004 0.051934782
17.190001 5.4000001 -0.12873754
17.190001 5.4900002 0.015238068
17.190001 5.5800004 0.22835732
17.190001 5.6700001 0.061381556
17.190001 5.7600002 -0.13216808
17.190001 5.8500004 0.13114752
17.190001 5.9400001 -0.031085581
17.280001 0 0.053790942
17.280001 0.090000004 0.35253102
17.280001 0.18000001 0.080865346
17.280001 0.27000001 0.10793728
17.280001 0.36000001 -0.012764922
17.280001 0.45000002 0.10154098
17.280001 0.54000002 -0.10133956
17.280001 0.63 -0.15895723
17.280001 0.72000003 -0.049230587
17.280001 0.81000006 -0.096769437
17.280001 0.90000004 -0.070585273
17.280001 0.99000001 0.081477925
17.280001 1.08 0.01304686
17.280001 1.1700001 -0.072445691
17.280001 1.26 0.0099431416
17.280001 1.35 0.11586964
17.280001 1.4400001 -0.042143073
17.280001 1.5300001 -0.0078534493
17.280001 1.6200001 -0.079000838
17.280001 1.71 0.091513164
17.280001 1.8000001 -0.092048332
17.280001 1.8900001 -0.19391495
17.280001 1.98 -0.29702055
17.280001 2.0700002 -0.24931699
17.280001 2.1600001 -0.22652778
17.280001 2.25 0.057876956
17.280001 2.3400002 -0.11017141
17.280001 2.4300001 -0.088427834
17.280001 2.52 -0.10935412
17.280001 2.6100001 -0.065736264
17.280001 2.7 0.051637895
17.280001 2.7900002 0.086187564
17.280001 2.8800001 0.02955398
17.280001 2.97 0.0064326199
17.280001 3.0600002 -0.064831048
17.280001 3.1500001 -0.044367846
17.280001 3.2400002 0.0910521
17.280001 3.3300002 0.018119864
17.280001 3.4200001 0.0036898975
17.280001 3.5100002 0.15656228
17.280001 3.6000001 -0.19135128
17.280001 3.6900001 0.1174583
17.280001 3.7800002 0.082789145
17.280001 3.8700001 -0.081297845
17.280001 3.96 -0.1286073
17.280001 4.0500002 0.19441175
17.280001 4.1400003 -0.039140068
17.280001 4.23 -0.12532164
17.280001 4.3200002 -0.028272122
17.280001 4.4100003 0.028172599
17.280001 4.5 0.048274785
17.280001 4.5900002 0.070396043
17.280001 4.6800003 -0.061595101
17.280001 4.77 0.10033778
17.280001 4.8600001 -0.1828507
17.280001 4.9500003 0.04508822
17.280001 5.04 -0.14012866
17.280001 5.1300001 0.014676732
17.280001 5.2200003 -0.064425208
17.280001 5.3100004 -0.053555556
17.280001 5.4000001 0.1999242
17.280001 5.4900002 0.18758889
17.280001 5.5800004 0.02980005
17.280001 5.6700001 -0.056808874
17.280001 5.7600002 0.17081077
17.280001 5.8500004 -0.080301486
17.280001 5.9400001 0.042754538
17.370001 0 0.090510264
17.370001 0.090000004 -0.20163599
17.370001 0.18000001 -0.0078554973
17.370001 0.27000001 0.011384059
17.370001 0.36000001 -0.051412694
17.370001 0.45000002 -0.079800896
17.370001 0.54000002 0.0085506989
17.370001 0.63 0.04151497
17.370001 0.72000003 -0.045000833
17.370001 0.81000006 0.08498697
17.370001 0.90000004 0.0012673885
17.370001 0.99000001 -0.056388352
17.370001 1.08 0.042104598
17.370001 1.1700001 0.12578221
17.370001 1.26 -0.17548969
17.370001 1.35 -0.12536016
17.370001 1.4400001 -0.091230348
17.370001 1.5300001 0.011890925
17.370001 1.6200001 -0.0069546662
17.370001 1.71 0.025795514
17.370001 1.8000001 -0.052491158
17.370001 1.8900001 0.09582074
17.370001 1.98 -0.0013000623
17.370001 2.0700002 -0.14429808
17.370001 2.1600001 0.046330858
17.370001 2.25 -0.0120019
17.370001 2.3400002 0.14847539
17.370001 2.4300001 0.017166015
17.370001 2.52 0.12840657
17.370001 2.6100001 -0.065284289
17.370001 2.7 0.073159441
17.370001 2.7900002 0.061778601
17.370001 2.8800001 -0.039498068
17.370001 2.97 -0.078644715
17.370001 3.0600002 -0.10043495
17.370001 3.1500001 0.051784627
17.370001 3.2400002 0.048189074
17.370001 3.3300002 0.086522482
17.370001 3.4200001 -0.10188827
17.370001 3.5100002 0.10175036
17.370001 3.6000001 -0.15646136
17.370001 3.6900001 0.19242501
17.370001 3.7800002 -0.055254392
17.370001 3.8700001 0.020509942
17.370001 3.96 -0.04052835
17.370001 4.0500002 -0.035959303
17.370001 4.1400003 0.029453043
17.370001 4.23 -0.021435251
17.370001 4.3200002 -0.11890953
17.370001 4.4100003 -0.031428501
17.370001 4.5 -0.01517016
17.370001 4.5900002 0.064125031
17.370001 4.6800003 -0.04335063
17.370001 4.77 0.03985763
17.370001 4.8600001 -0.10487619
17.370001 4.9500003 0.14701228
17.370001 5.04 -0.038553562
17.370001 5.1300001 -0.028636608
17.370001 5.2200003 -0.071531929
17.370001 5.3100004 0.021871127
17.370001 5.4000001 0.13849598
17.370001 5.4900002 -0.013744872
17.370001 5.5800004 -0.10654785
17.370001 5.6700001 0.079757504
17.370001 5.7600002 -0.0003511523
17.370001 5.8500004 0.058242138
17.370001 5.9400001 -0.0089698192
17.460001 0 -0.079681151
17.460001 0.090000004 -0.069576487
17.460001 0.18000001 -0.059649792
17.460001 0.27000001 0.060570695
17.460001 0.36000001 -0.12776837
17.460001 0.45000002 -0.022709964
17.460001 0.54000002 -0.08068572
17.460001 0.63 0.17412747
17.460001 0.72000003 0.060872316
17.460001 0.81000006 -0.15131658
17.460001 0.90000004 -0.067713469
17.460001 0.99000001 0.11002123
17.460001 1.08 0.082562707
17.460001 1.1700001 0.11173607
17.460001 1.26 0.033334512
17.460001 1.35 0.036891297
17.460001 1.4400001 0.086532854
17.460001 1.5300001 -0.016362526
17.460001 1.6200001 0.054609388
17.460001 1.71 -0.018814607
17.460001 1.8000001 0.079415672
17.460001 1.8900001 -0.078839332
17.460001 1.98 -0.07689251
17.460001 2.0700002 0.0180139
17.460001 2.1600001 -0.10557081
17.460001 2.25 0.010512116
17.460001 2.3400002 -0.021821983
17.460001 2.4300001 9.5615571e-05
17.460001 2.52 0.12397315
17.460001 2.6100001 0.04473941
17.460001 2.7 -0.039640635
17.460001 2.7900002 0.027022321
17.460001 2.8800001 0.1295341
17.460001 2.97 0.0048475191
17.460001 3.0600002 -0.0065066321
17.460001 3.1500001 -0.027447958
17.460001 3.2400002 0.04156303
17.460001 3.3300002 0.16811892
17.460001 3.4200001 0.026421539
17.460001 3.5100002 -0.053008474
17.460001 3.6000001 -0.032176897
17.460001 3.6900001 0.072446443
17.460001 3.7800002 -0.10686241
17.460001 3.8700001 0.027528007
17.460001 3.96 0.078896709
17.460001 4.0500002 -0.086096644
17.460001 4.1400003 0.030026272
17.460001 4.23 0.049863216
17.460001 4.3200002 -0.043785106
17.460001 4.4100003 -0.10020999
17.460001 4.5 -0.041590732
17.460001 4.5900002 -0.050870057
17.460001 4.6800003 0.09008
17.460001 4.77 0.17417186
17.460001 4.8600001 -0.1591974
17.460001 4.9500003 -0.096578754
17.460001 5.04 -0.061032433
17.460001 5.1300001 -0.058760222
17.460001 5.2200003 -0.017204078
17.460001 5.3100004 0.048461612
17.460001 5.4000001 -0.11004183
17.460001 5.4900002 -0.013528954
17.460001 5.5800004 -0.04578035
17.460001 5.6700001 -0.020711968
17.460001 5.7600002 0.029533578
17.460001 5.8500004 0.13587855
17.460001 5.9400001 0.051427145
17.550001 0 -0.015804671
17.550001 0.090000004 -0.014719652
17.550001 0.18000001 0.080263361
17.550001 0.27000001 -0.02538538
17.550001 0.36000001 -0.13544697
17.550001 0.45000002 0.17396209
17.550001 0.54000002 -0.032041706
17.550001 0.63 0.11842521
17.550001 0.72000003 -0.19935209
17.550001 0.81000006 0.036791477
17.550001 0.90000004 0.24522687
17.550001 0.99000001 0.016905542
17.550001 1.08 0.051563669
17.550001 1.1700001 -0.20114174
17.550001 1.26 -0.014786682
17.550001 1.35 -0.027127307
17.550001 1.4400001 0.049400937
17.550001 1.5300001 0.075786129
17.550001 1.6200001 -0.055212416
17.550001 1.71 -0.018207695
17.550001 1.8000001 0.20855427
17.550001 1.8900001 -0.066399857
17.550001 1.98 -0.012604125
17.550001 2.0700002 -0.17885792
17.550001 2.1600001 0.055425819
17.550001 2.25 0.0074533164
17.550001 2.3400002 0.11656102
17.550001 2.4300001 -0.23604628
17.550001 2.52 -0.033947542
17.550001 2.6100001 -0.031892981
17.550001 2.7 0.086976975
17.550001 2.7900002 -0.094570622
17.550001 2.8800001 0.071455158
17.550001 2.97 -0.14488994
17.550001 3.0600002 -0.075531125
17.550001 3.1500001 0.14098302
17.550001 3.2400002 -0.13207118
17.550001 3.3300002 -0.10771354
17.550001 3.4200001 -0.13434136
17.550001 3.5100002 -0.038991421
17.550001 3.6000001 -0.083146885
17.550001 3.6900001 -0.32395241
17.550001 3.7800002 -0.10477106
17.550001 3.8700001 -0.012984946
17.550001 3.96 -0.027446108
17.550001 4.0500002 -0.027787205
17.550001 4.1400003 -0.021644816
17.550001 4.23 0.0276634
17.550001 4.3200002 -0.038461011
17.550001 4.4100003 0.058095127
17.550001 4.5 0.23138385
17.550001 4.5900002 -0.016962394
17.550001 4.6800003 -0.036569443
17.550001 4.77 -0.091092758
17.550001 4.8600001 -0.084816091
17.550001 4.9500003 0.060371142
17.550001 5.04 0.0065258453
17.550001 5.1300001 0.090133466
17.550001 5.2200003 0.067950755
17.550001 5.3100004 0.19873762
17.550001 5.4000001 0.0036394428
17.550001 5.4900002 0.037639037
17.550001 5.5800004 -0.053066019
17.550001 5.6700001 -0.26084664
17.550001 5.7600002 -0.19015422
17.550001 5.8500004 0.14880259
17.550001 5.9400001 0.034238055
17.640001 0 0.01529127
17.640001 0.090000004 -0.15773632
17.640001 0.18000001 0.14722915
17.640001 0.27000001 0.064428009
17.640001 0.36000001 -0.12456295
17.640001 0.45000002 -0.0067742453
17.640001 0.54000002 0.088015616
17.640001 0.63 0.024685973
17.640001 0.72000003 0.19524354
17.640001 0.81000006 -0.028263723
17.640001 0.90000004 0.057409666
17.640001 0.99000001 -0.20929195
17.640001 1.08 0.15659426
17.640001 1.1700001 0.080296114
17.640001 1.26 -0.028328544
17.640001 1.35 -0.053490527
17.640001 1.4400001 -0.11892416
17.640001 1.5300001 -0.029598014
17.640001 1.6200001 -0.0385383
17.640001 1.71 -0.035850186
17.640001 1.8000001 0.15395483
17.640001 1.8900001 0.0075743473
17.640001 1.98 -0.041468367
17.640001 2.0700002 -0.052794028
17.640001 2.1600001 0.060523242
17.640001 2.25 -0.12294454
17.640001 2.3400002 0.10605843
17.640001 2.4300001 0.16328847
17.640001 2.52 -0.072623067
17.640001 2.6100001 0.0055296719
17.640001 2.7 -0.12923558
17.640001 2.7900002 -0.21289697
17.640001 2.8800001 -0.1368909
17.640001 2.97 -0.046237241
17.640001 3.0600002 -0.021446638
17.640001 3.1500001 0.15501367
17.640001 3.2400002 0.089388013
17.640001 3.3300002 -0.027507601
17.640001 3.4200001 0.081985436
17.640001 3.5100002 -0.045441233
17.640001 3.6000001 -0.026847221
17.640001 3.6900001 0.023805471
17.640001 3.7800002 -0.024772026
17.640001 3.8700001 -0.037194192
17.640001 3.96 -0.070889741
17.640001 4.0500002 0.03667108
17.640001 4.1400003 -0.0042204349
17.640001 4.23 -0.22402839
17.640001 4.3200002 -0.13188624
17.640001 4.4100003 0.028782003
17.640001 4.5 -0.036612213
17.640001 4.5900002 0.050013613
17.640001 4.6800003 0.055283695
17.640001 4.77 0.098742262
17.640001 4.8600001 -0.14745159
17.640001 4.9500003 0.05145238
17.640001 5.04 0.02443873
17.640001 5.1300001 -0.082524233
17.640001 5.2200003 -0.035736062
17.640001 5.3100004 -0.1843618
17.640001 5.4000001 0.018230246
17.640001 5.4900002 -0.15102974
17.640001 5.5800004 -0.28488851
17.640001 5.6700001 -0.098098062
17.640001 5.7600002 -0.052925117
17.640001 5.8500004 -0.14433631
17.640001 5.9400001 0.018209383
17.730001 0 -0.046864439
17.730001 0.090000004 0.093342833
17.730001 0.18000001 -0.17499523
17.730001 0.27000001 -0.081227034
17.730001 0.36000001 0.1296176
17.730001 0.45000002 -0.22484894
17.730001 0.54000002 0.2104739
17.730001 0.63 0.09328787
17.730001 0.72000003 -0.1088239
17.730001 0.81000006 0.019176692
17.730001 0.90000004 0.1265181
17.730001 0.99000001 -0.017482681
17.730001 1.08 0.19256428
17.730001 1.1700001 -0.10648257
17.730001 1.26 -0.059626993
17.730001 1.35 -0.32197186
17.730001 1.4400001 -0.094749652
17.730001 1.5300001 0.024867637
17.730001 1.6200001 -0.11298147
17.730001 1.71 0.029022306
17.730001 1.8000001 -0.087715581
17.730001 1.8900001 -0.051223401
17.730001 1.98 0.0047101961
17.730001 2.0700002 -0.081443101
17.730001 2.1600001 0.058492381
17.730001 2.25 0.029997636
17.730001 2.3400002 0.043060474
17.730001 2.4300001 -0.093722776
17.730001 2.52 0.053765975
17.730001 2.6100001 0.048845202
17.730001 2.7 -0.052626006
17.730001 2.7900002 -0.13032046
17.730001 2.8800001 -0.005876123
17.730001 2.97 0.069281958
17.730001 3.0600002 0.022277806
17.730001 3.1500001 -0.10263592
17.730001 3.2400002 0.17736375
17.730001 3.3300002 -0.13019909
17.730001 3.4200001 -0.02558966
17.730001 3.5100002 -0.051295161
17.730001 3.6000001 -0.28520334
17.730001 3.6900001 0.17455418
17.730001 3.7800002 -0.037832778
17.730001 3.8700001 0.074650623
17.730001 3.96 0.22393513
17.730001 4.0500002 0.042474918
17.730001 4.1400003 0.062975124
17.730001 4.23 0.17184171
17.730001 4.3200002 -0.036751818
17.730001 4.4100003 -0.16519716
17.730001 4.5 -0.031890754
17.730001 4.5900002 0.26172802
17.730001 4.6800003 0.073510982
17.730001 4.77 -0.057592914
17.730001 4.8600001 0.066257529
17.730001 4.9500003 -0.10306826
17.730001 5.04 -0.23998258
17.730001 5.1300001 0.00920555
17.730001 5.2200003 -0.084535755
17.730001 5.3100004 0.11499708
17.730001 5.4000001 0.11201855
17.730001 5.4900002 -0.024920527
17.730001 5.5800004 0.031239146
17.730001 5.6700001 0.03541223
17.730001 5.7600002 -0.038130172
17.730001 5.8500004 0.074187629
17.730001 5.9400001 0.070241258
17.820002 0 -0.045319635
17.820002 0.090000004 0.010830864
17.820002 0.18000001 0.057350341
17.820002 0.27000001 -0.055854067
17.820002 0.36000001 0.11579432
17.820002 0.45000002 0.22504617
17.820002 0.54000002 -0.032709915
17.820002 0.63 -0.096229374
17.820002 0.72000003 -0.18420354
17.820002 0.81000006 0.077451363
17.820002 0.90000004 -0.15122911
17.820002 0.99000001 0.021195205
17.820002 1.08 0.034106739
17.820002 1.1700001 0.013605012
17.820002 1.26 0.058866873
17.820002 1.35 0.13656607
17.820002 1.4400001 -0.0077622156
17.820002 1.5300001 0.17663081
17.820002 1.6200001 -0.029921928
17.820002 1.71 0.082327187
17.820002 1.8000001 0.061278917
17.820002 1.8900001 0.025491068
17.820002 1.98 0.073095612
17.820002 2.0700002 -0.055642575
17.820002 2.1600001 -0.090349197
17.820002 2.25 0.33314803
17.820002 2.3400002 -0.013772884
17.820002 2.4300001 -0.17251016
17.820002 2.52 -0.032415867
17.820002 2.6100001 0.066150993
17.820002 2.7 0.074912213
17.820002 2.7900002 -0.021620201
17.820002 2.8800001 -0.081377745
17.820002 2.97 -0.02364457
17.820002 3.0600002 -0.21720713
17.820002 3.1500001 -0.085746914
17.820002 3.2400002 -0.054137547
17.820002 3.3300002 -0.046625867
17.820002 3.4200001 -0.043870337
17.820002 3.5100002 -0.20044427
17.820002 3.6000001 0.09195096
17.820002 3.6900001 0.016693637
17.820002 3.7800002 -0.1944862
17.820002 3.8700001 -0.087203935
17.820002 3.96 -0.065075822
17.820002 4.0500002 -0.040288549
17.820002 4.1400003 -0.0036312838
17.820002 4.23 0.06654916
17.820002 4.3200002 0.21844174
17.820002 4.4100003 0.076435089
17.820002 4.5 -0.030410109
17.820002 4.5900002 0.064557329
17.820002 4.6800003 -0.05876375
17.820002 4.77 0.13542765
17.820002 4.8600001 0.098577581
17.820002 4.9500003 -0.053385343
17.820002 5.04 -0.16162521
17.820002 5.1300001 -0.017454421
17.820002 5.2200003 0.10637351
17.820002 5.3100004 -0.0087944772
17.820002 5.4000001 -0.12330546
17.820002 5.4900002 -0.07054399
17.820002 5.5800004 0.10343753
17.820002 5.6700001 -0.00085918448
17.820002 5.7600002 -0.0060940203
17.820002 5.8500004 0.097010627
17.820002 5.9400001 0.15695626
17.91 0 0.14589305
17.91 0.090000004 -0.010979407
17.91 0.18000001 0.073190622
17.91 0.27000001 -0.043583736
17.91 0.36000001 0.089025259
17.91 0.45000002 0.29960519
17.91 0.54000002 -0.080883972
17.91 0.63 0.0087069971
17.91 0.72000003 0.02862379
17.91 0.81000006 -0.048337068
17.91 0.90000004 0.052713789
17.91 0.99000001 -0.0046694772
17.91 1.08 0.057223208
17.91 1.1700001 -0.18619636
17.91 1.26 0.14394549
17.91 1.35 -0.096602947
17.91 1.4400001 -0.057204951
17.91 1.5300001 0.088992059
17.91 1.6200001 0.04356508
17.91 1.71 0.0831699
17.91 1.8000001 0.025368441
17.91 1.8900001 -0.011715533
17.91 1.98 -0.081588663
17.91 2.0700002 0.12816422
17.91 2.1600001 -0.091140851
17.91 2.25 0.077575855
17.91 2.3400002 -0.096654028
17.91 2.4300001 -0.007209274
17.91 2.52 0.01437763
17.91 2.6100001 -0.11713183
17.91 2.7 0.15351199
17.91 2.7900002 0.034354635
17.91 2.8800001 -0.021931032
17.91 2.97 -0.041794196
17.91 3.0600002 0.079891205
17.91 3.1500001 0.13111225
17.91 3.2400002 -0.19178745
17.91 3.3300002 -0.095147252
17.91 3.4200001 -0.11698086
17.91 3.5100002 -0.069533929
17.91 3.6000001 -0.089883372
17.91 3.6900001 -0.0065066358
17.91 3.7800002 -0.13323005
17.91 3.8700001 -0.035313714
17.91 3.96 -0.013890175
17.91 4.0500002 -0.067171529
17.91 4.1400003 0.030417332
17.91 4.23 0.10027003
17.91 4.3200002 -0.037901256
17.91 4.4100003 0.1328851
17.91 4.5 0.057013839
17.91 4.5900002 0.0061363867
17.91 4.6800003 -0.020005535
17.91 4.77 0.04428567
17.91 4.8600001 -0.079849914
17.91 4.9500003 0.070517659
17.91 5.04 0.015722372
17.91 5.1300001 0.0027146486
17.91 5.2200003 -0.0016461961
17.91 5.3100004 0.10902493
17.91 5.4000001 -0.14046733
17.91 5.4900002 0.078066207
17.91 5.5800004 -0.0054576583
17.91 5.6700001 -0.038045615
17.91 5.7600002 -0.056880821
17.91 5.8500004 0.058988851
17.91 5.9400001 -0.013501181
18 0 -0.062572159
18 0.090000004 -0.031894796
18 0.18000001 -0.096295729
18 0.27000001 -0.13943553
18 0.36000001 0.0024680179
18 0.45000002 -0.020147247
18 0.54000002 0.022685803
18 0.63 -0.025837962
18 0.72000003 -0.0036796541
18 0.81000006 0.11176369
18 0.90000004 -0.0065872776
18 0.99000001 -0.031031214
18 1.08 0.0027104889
18 1.1700001 0.16634257
18 1.26 0.13997634
18 1.35 0.091898277
18 1.4400001 0.13087663
18 1.5300001 0.14706044
18 1.6200001 0.090140879
18 1.71 0.22801392
18 1.8000001 -0.079421818
18 1.8900001 0.034004759
18 1.98 -0.0059303804
18 2.0700002 -0.1063255
18 2.1600001 0.05449887
18 2.25 -0.070553839
18 2.3400002 0.054186575
18 2.4300001 -0.079528116
18 2.52 -0.039178118
18 2.6100001 -0.13004197
18 2.7 -0.054314561
18 2.7900002 0.01929711
18 2.8800001 -0.094634771
18 2.97 -0.11733923
18 3.0600002 -0.020560917
18 3.1500001 -0.23188747
18 3.2400002 -0.084794037
18 3.3300002 0.067590535
18 3.4200001 0.082242943
18 3.5100002 -0.19425529
18 3.6000001 -0.01241488
18 3.6900001 0.059550386
18 3.7800002 -0.091447122
18 3.8700001 -0.063725442
18 3.96 0.1757953
18 4.0500002 -0.076092549
18 4.1400003 0.1396177
18 4.23 0.15477006
18 4.3200002 -0.068466209
18 4.4100003 0.032432031
18 4.5 -0.059050534
18 4.5900002 0.077946216
18 4.6800003 -0.0097937314
18 4.77 0.06445384
18 4.8600001 -0.042351339
18 4.9500003 0.025528187
18 5.04 0.070945807
18 5.1300001 0.047098864
18 5.2200003 0.029705431
18 5.3100004 0.11097103
18 5.4000001 9.6158939e-05
18 5.4900002 -0.011800114
18 5.5800004 0.071883656
18 5.6700001 0.11361229
18 5.7600002 -0.17946464
18 5.8500004 0.084458143
18 5.9400001 0.048422523
18.09 0 0.11765787
18.09 0.090000004 -0.16566335
18.09 0.18000001 -0.15436712
18.09 0.27000001 -0.17910045
18.09 0.36000001 0.092096031
18.09 0.45000002 -0.087874889
18.09 0.54000002 -0.13839054
18.09 0.63 0.041835297
18.09 0.72000003 0.033321422
18.09 0.81000006 0.12658459
18.09 0.90000004 -0.021766653
18.09 0.99000001 -0.13216205
18.09 1.08 -0.0073076482
18.09 1.1700001 0.033126883
18.09 1.26 0.031035885
18.09 1.35 0.014924072
18.09 1.4400001 0.143407
18.09 1.5300001 0.056292042
18.09 1.6200001 0.048309252
18.09 1.71 -0.16372889
18.09 1.8000001 -0.19820447
18.09 1.8900001 -0.036249273
18.09 1.98 0.12872191
18.09 2.0700002 0.027723234
18.09 2.1600001 0.013719697
18.09 2.25 0.0013167309
18.09 2.3400002 0.0065732719
18.09 2.4300001 0.046353109
18.09 2.52 -0.24309246
18.09 2.6100001 0.12506297
18.09 2.7 0.070268579
18.09 2.7900002 -0.063637421
18.09 2.8800001 0.037928853
18.09 2.97 0.060787991
18.09 3.0600002 -0.079144247
18.09 3.1500001 -0.098112382
18.09 3.2400002 0.0023926718
18.09 3.3300002 0.0144728
18.09 3.4200001 0.022723233
18.09 3.5100002 0.10451488
18.09 3.6000001 -0.036431201
18.09 3.6900001 -0.037561189
18.09 3.7800002 -0.05658032
18.09 3.8700001 -0.16961917
18.09 3.96 0.14813316
18.09 4.0500002 -0.092025861
18.09 4.1400003 -0.016752703
18.09 4.23 -0.027803475
18.09 4.3200002 -0.078642793
18.09 4.4100003 0.07725554
18.09 4.5 0.0067532575
18.09 4.5900002 -0.059248786
18.09 4.6800003 -0.026229415
18.09 4.77 -0.0037507773
18.09 4.8600001 -0.098734617
18.09 4.9500003 0.1093887
18.09 5.04 -0.10060977
18.09 5.1300001 -0.15115596
18.09 5.2200003 0.097885504
18.09 5.3100004 -0.088342488
18.09 5.4000001 0.0016366813
18.09 5.4900002 0.065333374
18.09 5.5800004 0.047775667
18.09 5.6700001 0.092151165
18.09 5.7600002 -0.043673776
18.09 5.8500004 0.083534405
18.09 5.9400001 -0.00060919841
18.18 0 0.044999823
18.18 0.090000004 0.049650498
18.18 0.18000001 -0.013221296
18.18 0.27000001 -0.016130686
18.18 0.36000001 0.083497368
18.18 0.45000002 0.0055783428
18.18 0.54000002 -0.1684406
18.18 0.63 0.0266861
18.18 0.72000003 0.059811499
18.18 0.81000006 0.032719128
18.18 0.90000004 0.22258334
18.18 0.99000001 0.028914189
18.18 1.08 0.0056771948
18.18 1.1700001 0.034935292
18.18 1.26 -0.094057247
18.18 1.35 0.001893327
18.18 1.4400001 0.043595288
18.18 1.5300001 0.028502798
18.18 1.6200001 0.069707155
18.18 1.71 -0.29034057
18.18 1.8000001 -0.13982378
18.18 1.8900001 -0.09638916
18.18 1.98 0.071570531
18.18 2.0700002 0.21097007
18.18 2.1600001 -0.013468613
18.18 2.25 -0.078083649
18.18 2.3400002 -0.063439921
18.18 2.4300001 -0.030793397
18.18 2.52 -0.11533108
18.18 2.6100001 0.12208577
18.18 2.7 -0.06531658
18.18 2.7900002 -0.055492997
18.18 2.8800001 -0.064083338
18.18 2.97 -0.079129316
18.18 3.0600002 -0.014793439
18.18 3.1500001 0.21665445
18.18 3.2400002 0.00047494011
18.18 3.3300002 0.0248976
18.18 3.4200001 0.1337664
18.18 3.5100002 -0.092114925
18.18 3.6000001 -0.25430769
18.18 3.6900001 0.13149022
18.18 3.7800002 0.053081729
18.18 3.8700001 -0.011315123
18.18 3.96 -0.031390525
18.18 4.0500002 -0.099193491
18.18 4.1400003 0.085672662
18.18 4.23 -0.028051712
18.18 4.3200002 0.098470859
18.18 4.4100003 0.065880947
18.18 4.5 0.00090620428
18.18 4.5900002 -0.022301795
18.18 4.6800003 0.066579208
18.18 4.77 -0.19950603
18.18 4.8600001 -0.053911876
18.18 4.9500003 -0.10396705
18.18 5.04 -0.099921942
18.18 5.1300001 -0.071312591
18.18 5.2200003 0.020385757
18.18 5.3100004 -0.11650846
18.18 5.4000001 0.0010447085
18.18 5.4900002 -0.054609254
18.18 5.5800004 -0.029208919
18.18 5.6700001 0.068139315
18.18 5.7600002 0.12722589
18.18 5.8500004 0.039099764
18.18 5.9400001 0.01823267
18.27 0 -0.16386235
18.27 0.090000004 -0.01930856
18.27 0.18000001 -0.10870199
18.27 0.27000001 0.0027768326
18.27 0.36000001 -0.15009183
18.27 0.45000002 -0.039130941
18.27 0.54000002 0.056807496
18.27 0.63 0.025450358
18.27 0.72000003 0.029446308
18.27 0.81000006 -0.081641175
18.27 0.90000004 -0.095356435
18.27 0.99000001 0.14841631
18.27 1.08 -0.082543753
18.27 1.1700001 -0.10516349
18.27 1.26 -0.16781251
18.27 1.35 -0.22604649
18.27 1.4400001 -0.12829866
18.27 1.5300001 0.063729502
18.27 1.6200001 0.0018009433
18.27 1.71 0.15618351
18.27 1.8000001 -0.055055428
18.27 1.8900001 -0.10238219
18.27 1.98 -0.19012092
18.27 2.0700002 0.071536548
18.27 2.1600001 0.088191211
18.27 2.25 0.022448391
18.27 2.3400002 0.12242559
18.27 2.4300001 0.15383379
18.27 2.52 0.050890017
18.27 2.6100001 -0.013279621
18.27 2.7 -0.06422931
18.27 2.7900002 -0.038715627
18.27 2.8800001 -0.0040728534
18.27 2.97 0.099708401
18.27 3.0600002 -0.1303879
18.27 3.1500001 -0.20047557
18.27 3.2400002 0.079874121
18.27 3.3300002 -0.11883667
18.27 3.4200001 -0.14344434
18.27 3.5100002 0.018772433
18.27 3.6000001 0.078086048
18.27 3.6900001 0.29744333
18.27 3.7800002 -0.092541352
18.27 3.8700001 -0.033465784
18.27 3.96 -0.043576621
18.27 4.0500002 0.065424517
18.27 4.1400003 0.15335575
18.27 4.23 0.19441779
18.27 4.3200002 0.014170568
18.27 4.4100003 0.12246434
18.27 4.5 0.090889208
18.27 4.5900002 -0.013194157
18.27 4.6800003 -0.030372938
18.27 4.77 -0.15461725
18.27 4.8600001 -0.097113267
18.27 4.9500003 -0.021767778
18.27 5.04 0.12183923
18.27 5.1300001 0.05265376
18.27 5.2200003 0.12633523
18.27 5.3100004 -0.0042190691
18.27 5.4000001 0.15311776
18.27 5.4900002 0.068397567
18.27 5.5800004 -0.0013957291
18.27 5.6700001 0.063584499
18.27 5.7600002 0.11576123
18.27 5.8500004 0.037321437
18.27 5.9400001 -0.041657753
18.360001 0 -0.16656496
18.360001 0.090000004 -0.052061789
18.360001 0.18000001 -0.24027686
18.360001 0.27000001 -0.084903613
18.360001 0.36000001 -0.051407248
18.360001 0.45000002 -0.09828347
18.360001 0.54000002 -0.15627484
18.360001 0.63 0.060342506
18.360001 0.72000003 0.080362663
18.360001 0.81000006 0.022504069
18.360001 0.90000004 0.026164563
18.360001 0.99000001 0.014082329
18.360001 1.08 -0.067819841
18.360001 1.1700001 0.14428441
18.360001 1.26 -0.0033538791
18.360001 1.35 -0.10588041
18.360001 1.4400001 -0.010443139
18.360001 1.5300001 0.052871548
18.360001 1.6200001 -0.041680928
18.360001 1.71 0.0496829
18.360001 1.8000001 0.060888272
18.360001 1.8900001 0.012339872
18.360001 1.98 -0.0061283088
18.360001 2.0700002 -0.067709632
18.360001 2.1600001 0.16438712
18.360001 2.25 -0.182469
18.360001 2.3400002 0.010209892
18.360001 2.4300001 0.092215724
18.360001 2.52 -0.13781832
18.360001 2.6100001 -0.0022467044
18.360001 2.7 0.064772137
18.360001 2.7900002 0.040051267
18.360001 2.8800001 0.073225699
18.360001 2.97 -0.10531539
18.360001 3.0600002 0.057480413
18.360001 3.1500001 -0.064075023
18.360001 3.2400002 -0.016244022
18.360001 3.3300002 -0.037142199
18.360001 3.4200001 -0.056593817
18.360001 3.5100002 -0.14028281
18.360001 3.6000001 -0.043539241
18.360001 3.6900001 0.10122196
18.360001 3.7800002 -0.034529172
18.360001 3.8700001 0.13439804
18.360001 3.96 -0.064608529
18.360001 4.0500002 0.12773167
18.360001 4.1400003 0.052924234
18.360001 4.23 0.071585611
18.360001 4.3200002 0.05356545
18.360001 4.4100003 -0.10009054
18.360001 4.5 -0.045921519
18.360001 4.5900002 0.17843984
18.360001 4.6800003 0.17660739
18.360001 4.77 -0.09249796
18.360001 4.8600001 -0.082027555
18.360001 4.9500003 0.064306475
18.360001 5.04 -0.020843964
18.360001 5.1300001 0.0043884697
18.360001 5.2200003 -0.019486811
18.360001 5.3100004 0.10752848
18.360001 5.4000001 -0.22155006
18.360001 5.4900002 -0.041546647
18.360001 5.5800004 0.012208958
18.360001 5.6700001 -0.13254856
18.360001 5.7600002 0.063722692
18.360001 5.8500004 -0.042224649
18.360001 5.9400001 0.27001044
18.450001 0 0.0016790266
18.450001 0.090000004 0.20476677
18.450001 0.18000001 0.021699801
18.450001 0.27000001 -0.11448292
18.450001 0.36000001 0.04284589
18.450001 0.45000002 -0.072530113
18.450001 0.54000002 0.10650821
18.450001 0.63 -0.12050531
18.450001 0.72000003 0.066908956
18.450001 0.81000006 -0.031220179
18.450001 0.90000004 -0.012531743
18.450001 0.99000001 -0.093242295
18.450001 1.08 0.09463162
18.450001 1.1700001 0.029707244
18.450001 1.26 0.051437952
18.450001 1.35 -0.0053763785
18.450001 1.4400001 -0.053907517
18.450001 1.5300001 0.070455134
18.450001 1.6200001 -0.014017321
18.450001 1.71 -0.10922451
18.450001 1.8000001 0.10094964
18.450001 1.8900001 -0.10773289
18.450001 1.98 -0.075400427
18.450001 2.0700002 0.046139505
18.450001 2.1600001 0.0009050353
18.450001 2.25 0.11552326
18.450001 2.3400002 -0.034052122
18.450001 2.4300001 0.081259347
18.450001 2.52 -0.078797661
18.450001 2.6100001 -0.059237376
18.450001 2.7 -0.040092349
18.450001 2.7900002 0.074212007
18.450001 2.8800001 0.067212671
18.450001 2.97 -0.043733984
18.450001 3.0600002 -0.01187034
18.450001 3.1500001 -0.15320568
18.450001 3.2400002 -0.076785959
18.450001 3.3300002 -0.059254471
18.450001 3.4200001 0.090730496
18.450001 3.5100002 0.00053941429
18.450001 3.6000001 0.018113205
18.450001 3.6900001 -0.028010583
18.450001 3.7800002 0.19739169
18.450001 3.8700001 -0.041103009
18.450001 3.96 0.1021799
18.450001 4.0500002 0.13720787
18.450001 4.1400003 -0.0060182903
18.450001 4.23 -0.01240887
18.450001 4.3200002 0.054104932
18.450001 4.4100003 -0.1841135
18.450001 4.5 0.10296417
18.450001 4.5900002 -0.0022444448
18.450001 4.6800003 -0.063761197
18.450001 4.77 0.11006444
18.450001 4.8600001 0.0027968995
18.450001 4.9500003 -0.059707832
18.450001 5.04 -0.019952197
18.450001 5.1300001 -0.072012037
18.450001 5.2200003 0.20113656
18.450001 5.3100004 0.039312311
18.450001 5.4000001 -0.15231329
18.450001 5.4900002 0.091512665
18.450001 5.5800004 0.19995661
18.450001 5.6700001 -0.086971618
18.450001 5.7600002 -0.14503446
18.450001 5.8500004 0.0035251309
18.450001 5.9400001 -0.1914302
18.540001 0 0.080576725
18.540001 0.090000004 0.023065297
18.540001 0.18000001 -0.11466897
18.540001 0.27000001 -0.0091049187
18.540001 0.36000001 0.19199443
18.540001 0.45000002 0.091888919
18.540001 0.54000002 -0.072283074
18.540001 0.63 -0.11570381
18.540001 0.72000003 -0.0037328489
18.540001 0.81000006 0.068799667
18.540001 0.90000004 -0.061555013
18.540001 0.99000001 -0.12799716
18.540001 1.08 -0.16712683
18.540001 1.1700001 -0.03940849
18.540001 1.26 -0.01705054
18.540001 1.35 -0.080876842
18.540001 1.4400001 -0.04660916
18.540001 1.5300001 0.20136282
18.540001 1.6200001 0.022834862
18.540001 1.71 0.05613295
18.540001 1.8000001 0.1284254
18.540001 1.8900001 0.10418314
18.540001 1.98 0.070051678
18.540001 2.0700002 0.15334064
18.540001 2.1600001 -0.13869666
18.540001 2.25 -0.11362617
18.540001 2.3400002 -0.13535047
18.540001 2.4300001 -0.076234788
18.540001 2.52 0.14287387
18.540001 2.6100001 0.16995174
18.540001 2.7 0.0054236981
18.540001 2.7900002 -0.089932233
18.540001 2.8800001 -0.22270207
18.540001 2.97 -0.012147808
18.540001 3.0600002 0.042604506
18.540001 3.1500001 -0.015303861
18.540001 3.2400002 -0.043739412
18.540001 3.3300002 -0.069701552
18.540001 3.4200001 0.19459891
18.540001 3.5100002 -0.066448152
18.540001 3.6000001 0.13927838
18.540001 3.6900001 -0.028212767
18.540001 3.7800002 0.085129842
18.540001 3.8700001 -0.039197795
18.540001 3.96 0.041330267
18.540001 4.0500002 -0.11766083
18.540001 4.1400003 -0.037369639
18.540001 4.23 -9.2127899e-05
18.540001 4.3200002 0.082182288
18.540001 4.4100003 0.02279979
18.540001 4.5 -0.13661757
18.540001 4.5900002 -0.084318586
18.540001 4.6800003 0.026323907
18.540001 4.77 0.0030585479
18.540001 4.8600001 0.070641585
18.540001 4.9500003 -0.070224382
18.540001 5.04 0.13936065
18.540001 5.1300001 -0.0037825117
18.540001 5.2200003 0.052245915
18.540001 5.3100004 0.071991734
18.540001 5.4000001 0.097132489
18.540001 5.4900002 0.12904164
18.540001 5.5800004 -0.054164439
18.540001 5.6700001 0.035843406
18.540001 5.7600002 0.098363832
18.540001 5.8500004 -0.032474957
18.540001 5.9400001 0.0066892086
18.630001 0 0.083031543
18.630001 0.090000004 0.031003816
18.630001 0.18000001 0.050656706
18.630001 0.27000001 0.034099918
18.630001 0.36000001 -0.19418794
18.630001 0.45000002 -0.078527912
18.630001 0.54000002 -0.055915602
18.630001 0.63 0.13588922
18.630001 0.72000003 -0.038195591
18.630001 0.81000006 -0.061958641
18.630001 0.90000004 -0.089776613
18.630001 0.99000001 0.058081668
18.630001 1.08 0.018175805
18.630001 1.1700001 0.056230567
18.630001 1.26 0.017816339
18.630001 1.35 -0.12953943
18.630001 1.4400001 -0.018508315
18.630001 1.5300001 -0.0047646645
18.630001 1.6200001 0.040389992
18.630001 1.71 -0.051465802
18.630001 1.8000001 0.072287068
18.630001 1.8900001 -0.015542823
18.630001 1.98 0.11973483
18.630001 2.0700002 0.045106452
18.630001 2.1600001 -0.01312206
18.630001 2.25 0.17755985
18.630001 2.3400002 0.10741709
18.630001 2.4300001 0.060905308
18.630001 2.52 0.0078689661
18.630001 2.6100001 -0.099007465
18.630001 2.7 -0.050216764
18.630001 2.7900002 0.075014502
18.630001 2.8800001 0.037632689
18.630001 2.97 0.048727103
18.630001 3.0600002 0.010190626
18.630001 3.1500001 -0.071301416
18.630001 3.2400002 0.083773918
18.630001 3.3300002 0.008304093
18.630001 3.4200001 0.075378999
18.630001 3.5100002 0.19428533
18.630001 3.6000001 0.057172831
18.630001 3.6900001 0.047262829
18.630001 3.7800002 -0.093145944
18.630001 3.8700001 0.031017883
18.630001 3.96 -0.097195454
18.630001 4.0500002 0.13418655
18.630001 4.1400003 -0.044208482
18.630001 4.23 -0.12867232
18.630001 4.3200002 -0.16508822
18.630001 4.4100003 -0.14634986
18.630001 4.5 -0.060345139
18.630001 4.5900002 0.062742107
18.630001 4.6800003 -0.063420586
18.630001 4.77 -0.043419208
18.630001 4.8600001 -0.092718698
18.630001 4.9500003 -0.03737532
18.630001 5.04 0.029964807
18.630001 5.1300001 0.027336834
18.630001 5.2200003 -0.13468172
18.630001 5.3100004 -0.12424469
18.630001 5.4000001 0.068227611
18.630001 5.4900002 0.013119746
18.630001 5.5800004 0.041256379
18.630001 5.6700001 0.045401562
18.630001 5.7600002 -0.10872778
18.630001 5.8500004 -0.09881328
18.630001 5.9400001 0.037882421
18.720001 0 0.084528446
18.720001 0.090000004 0.22994554
18.720001 0.18000001 0.050518882
18.720001 0.27000001 -0.27965069
18.720001 0.36000001 0.20115589
18.720001 0.45000002 0.10898015
18.720001 0.54000002 -0.1457731
18.720001 0.63 0.023631189
18.720001 0.72000003 -0.12959714
18.720001 0.81000006 0.004141483
18.720001 0.90000004 0.0086979261
18.720001 0.99000001 -0.12890233
18.720001 1.08 -0.087197162
18.720001 1.1700001 0.10142793
18.720001 1.26 -0.16043586
18.720001 1.35 -0.012072785
18.720001 1.4400001 0.23253959
18.720001 1.5300001 0.079218484
18.720001 1.6200001 0.090291478
18.720001 1.71 -0.12158806
18.720001 1.8000001 0.12497324
18.720001 1.8900001 -0.21964273
18.720001 1.98 0.19971961
18.720001 2.0700002 0.05782932
18.720001 2.1600001 -0.13666101
18.720001 2.25 -0.08618582
18.720001 2.3400002 -0.031815067
18.720001 2.4300001 0.035759274
18.720001 2.52 -0.091681443
18.720001 2.6100001 -0.017233901
18.720001 2.7 -0.26051453
18.720001 2.7900002 -0.21460409
18.720001 2.8800001 -0.056048095
18.720001 2.97 0.072613329
18.720001 3.0600002 -0.034048416
18.720001 3.1500001 0.11931738
18.720001 3.2400002 -0.032711793
18.720001 3.3300002 0.089081056
18.720001 3.4200001 -0.026607806
18.720001 3.5100002 -0.080762923
18.720001 3.6000001 -0.10180417
18.720001 3.6900001 -0.10933605
18.720001 3.7800002 -0.14819489
18.720001 3.8700001 0.082200579
18.720001 3.96 0.014887153
18.720001 4.0500002 0.025762718
18.720001 4.1400003 0.11924029
18.720001 4.23 0.062733434
18.720001 4.3200002 0.11265635
18.720001 4.4100003 -0.16645789
18.720001 4.5 -0.0095815863
18.720001 4.5900002 -0.036945775
18.720001 4.6800003 -0.093131296
18.720001 4.77 -0.043675072
18.720001 4.8600001 -0.032959037
18.720001 4.9500003 -0.056588195
18.720001 5.04 0.045894507
18.720001 5.1300001 0.072584964
18.720001 5.2200003 -0.18707012
18.720001 5.3100004 0.110626
18.720001 5.4000001 0.034010652
18.720001 5.4900002 -0.087206133
18.720001 5.5800004 -0.016733825
18.720001 5.6700001 -0.11531878
18.720001 5.7600002 -0.13671546
18.720001 5.8500004 -0.085374624
18.720001 5.9400001 0.14241242
18.810001 0 0.01240673
18.810001 0.090000004 0.089835644
18.810001 0.18000001 0.038934033
18.810001 0.27000001 0.075008266
18.810001 0.36000001 0.047073271
18.810001 0.45000002 0.045521531
18.810001 0.54000002 -0.35686877
18.810001 0.63 0.1944433
18.810001 0.72000003 0.020904027
18.810001 0.81000006 -0.16281018
18.810001 0.90000004 0.016466254
18.810001 0.99000001 -0.16245081
18.810001 1.08 -0.16208726
18.810001 1.1700001 -0.024554536
18.810001 1.26 -0.022405026
18.810001 1.35 0.010322873
18.810001 1.4400001 -0.075926676
18.810001 1.5300001 -0.15637957
18.810001 1.6200001 -0.052465133
18.810001 1.71 0.0514591
18.810001 1.8000001 -0.10359076
18.810001 1.8900001 0.15658477
18.810001 1.98 -0.073119618
18.810001 2.0700002 -0.053676069
18.810001 2.1600001 0.14873134
18.810001 2.25 -0.061699159
18.810001 2.3400002 -0.014797507
18.810001 2.4300001 -0.065172881
18.810001 2.52 0.018602174
18.810001 2.6100001 0.12145975
18.810001 2.7 -0.0078401743
18.810001 2.7900002 -0.0012757677
18.810001 2.8800001 0.017454978
18.810001 2.97 -0.12007573
18.810001 3.0600002 -0.20113936
18.810001 3.1500001 -0.0951389
18.810001 3.2400002 -0.083120018
18.810001 3.3300002 0.17465134
18.810001 3.4200001 -0.012007664
18.810001 3.5100002 -0.029171623
18.810001 3.6000001 0.013564682
18.810001 3.6900001 0.1227458
18.810001 3.7800002 0.1270209
18.810001 3.8700001 -0.051398765
18.810001 3.96 0.11119732
18.810001 4.0500002 -0.13040036
18.810001 4.1400003 -0.0080352342
18.810001 4.23 -0.10906819
18.810001 4.3200002 0.028513273
18.810001 4.4100003 -0.057529017
18.810001 4.5 -0.033724204
18.810001 4.5900002 0.07938572
18.810001 4.6800003 0.014206518
18.810001 4.77 0.060007494
18.810001 4.8600001 0.062883057
18.810001 4.9500003 -0.12691405
18.810001 5.04 -0.089549735
18.810001 5.1300001 0.1072863
18.810001 5.2200003 0.061907418
18.810001 5.3100004 -0.042387828
18.810001 5.4000001 -0.021278387
18.810001 5.4900002 -0.11240552
18.810001 5.5800004 0.11573006
18.810001 5.6700001 0.063834034
18.810001 5.7600002 -0.088823341
18.810001 5.8500004 -0.14075471
18.810001 5.9400001 0.099010609
18.900002 0 -0.063133083
18.900002 0.090000004 -0.1306216
18.900002 0.18000001 0.084960498
18.900002 0.27000001 0.042767838
18.900002 0.36000001 0.068336941
18.900002 0.45000002 -0.028841851
18.900002 0.54000002 0.1050996
18.900002 0.63 0.10645998
18.900002 0.72000003 0.099929415
18.900002 0.81000006 -0.15888989
18.900002 0.90000004 -0.12892847
18.900002 0.99000001 -0.067985833
18.900002 1.08 -0.047100201
18.900002 1.1700001 -0.087798961
18.900002 1.26 -0.012046759
18.900002 1.35 0.025457289
18.900002 1.4400001 -0.096202306
18.900002 1.5300001 -0.053045869
18.900002 1.6200001 0.14550079
18.900002 1.71 -0.090896197
18.900002 1.8000001 -0.044515993
18.900002 1.8900001 -0.056292772
18.900002 1.98 -0.0093964627
18.900002 2.0700002 -0.03470375
18.900002 2.1600001 -0.010745237
18.900002 2.25 -0.10226043
18.900002 2.3400002 0.024374714
18.900002 2.4300001 -0.16240773
18.900002 2.52 0.061265111
18.900002 2.6100001 -0.059389424
18.900002 2.7 0.28471893
18.900002 2.7900002 -0.036390245
18.900002 2.8800001 0.012511558
18.900002 2.97 -0.067016996
18.900002 3.0600002 0.13744627
18.900002 3.1500001 -0.12233002
18.900002 3.2400002 -0.1382966
18.900002 3.3300002 0.20184247
18.900002 3.4200001 0.063670993
18.900002 3.5100002 -0.16696729
18.900002 3.6000001 0.0082770409
18.900002 3.6900001 0.012536763
18.900002 3.7800002 0.14581458
18.900002 3.8700001 -0.099555261
18.900002 3.96 -0.080280155
18.900002 4.0500002 -0.030028418
18.900002 4.1400003 0.095812775
18.900002 4.23 -0.017375257
18.900002 4.3200002 0.045057401
18.900002 4.4100003 -0.025924271
18.900002 4.5 0.006667607
18.900002 4.5900002 -0.023916533
18.900002 4.6800003 -0.0041695083
18.900002 4.77 0.09116102
18.900002 4.8600001 0.081597656
18.900002 4.9500003 -0.19331956
18.900002 5.04 0.18876299
18.900002 5.1300001 0.029991603
18.900002 5.2200003 0.2157653
18.900002 5.3100004 -0.27539575
18.900002 5.4000001 0.11260072
18.900002 5.4900002 -0.012332972
18.900002 5.5800004 0.079517968
18.900002 5.6700001 -0.064008951
18.900002 5.7600002 -0.083522432
18.900002 5.8500004 -0.033224091
18.900002 5.9400001 0.035611201
18.990002 0 -0.036845442
18.990002 0.090000004 0.073393345
18.990002 0.18000001 0.16102989
18.990002 0.27000001 -0.072959669
18.990002 0.36000001 0.16281267
18.990002 0.45000002 -0.07635653
18.990002 0.54000002 -0.20528413
18.990002 0.63 -0.025908845
18.990002 0.72000003 -0.085734941
18.990002 0.81000006 -0.0590754
18.990002 0.90000004 -0.087305091
18.990002 0.99000001 -0.090046644
18.990002 1.08 0.010244507
18.990002 1.1700001 -0.065861389
18.990002 1.26 -0.083038032
18.990002 1.35 0.075154394
18.990002 1.4400001 0.01485307
18.990002 1.5300001 0.063902624
18.990002 1.6200001 -0.055228606
18.990002 1.71 -0.13101615
18.990002 1.8000001 -0.0046737557
18.990002 1.8900001 -0.126996
18.990002 1.98 0.16489695
18.990002 2.0700002 -0.034247991
18.990002 2.1600001 -0.097718149
18.990002 2.25 0.083510645
18.990002 2.3400002 0.11199107
18.990002 2.4300001 -0.11771666
18.990002 2.52 0.13457192
18.990002 2.6100001 -0.067625053
18.990002 2.7 0.10822307
18.990002 2.7900002 -0.1264527
18.990002 2.8800001 0.066369899
18.990002 2.97 -0.077139564
18.990002 3.0600002 -0.14090061
18.990002 3.1500001 0.064470693
18.990002 3.2400002 -0.15772945
18.990002 3.3300002 0.12665346
18.990002 3.4200001 -0.08905068
18.990002 3.5100002 0.072016761
18.990002 3.6000001 0.080061905
18.990002 3.6900001 0.25221595
18.990002 3.7800002 0.18300331
18.990002 3.8700001 0.049438823
18.990002 3.96 -0.048947748
18.990002 4.0500002 0.022841021
18.990002 4.1400003 0.042984169
